ply
format ascii 1.0
element vertex 142
property float x
property float y
property float z
property uchar red
property uchar green
property uchar blue
end_header
0.02643267624080181 0.03665943443775177 2.195751190185547 210 198 188
0.135785311460495 -0.12000402808189392 2.647843837738037 95 60 27
0.27392494678497314 -1.0581337213516235 7.116993427276611 135 128 131
-0.10926155745983124 -0.5438113212585449 5.943313121795654 222 216 211
-0.995093822479248 -8.118176460266113 50.337703704833984 175 186 190
-2.1068475246429443 3.217989206314087 -16.542333602905273 118 106 112
0.004117276053875685 0.04817139357328415 0.3803936243057251 187 196 193
-0.014570942148566246 -0.21199911832809448 -2.279588460922241 164 178 174
0.06727048754692078 0.003368609817698598 -0.47540804743766785 67 8 0
0.007011395413428545 0.0381951704621315 0.34778788685798645 179 188 185
0.10378426313400269 0.0976158082485199 1.3800398111343384 179 188 185
0.017401084303855896 -0.0007910265121608973 0.2119351476430893 210 215 214
0.01770731620490551 0.0010653163772076368 0.21273253858089447 173 176 174
0.008020210079848766 0.023920513689517975 0.29704317450523376 163 182 179
0.011431724764406681 -0.022270698100328445 -0.020671624690294266 160 174 172
0.012217365205287933 0.04087602719664574 0.3597002923488617 168 185 181
0.021875543519854546 0.004323989152908325 0.23602566123008728 209 214 213
0.011721611022949219 0.028879314661026 0.3034420311450958 10 10 10
0.38851699233055115 -0.5753882527351379 5.0450029373168945 134 133 119
0.015854692086577415 -0.007093082182109356 0.0914779081940651 164 181 178
0.016143014654517174 0.03744065761566162 0.3494913578033447 5 7 7
0.01939455047249794 0.04686536267399788 0.3907363712787628 157 178 175
-0.03120214119553566 0.015556193888187408 -0.5665833950042725 234 255 255
0.034527938812971115 0.05271166190505028 0.4714544117450714 96 55 23
0.011585206724703312 0.0003954473650082946 0.10553417354822159 6 11 10
0.015081947669386864 -0.005466577131301165 0.2922089099884033 232 254 252
0.24484455585479736 0.06730902194976807 4.587574005126953 48 98 94
0.021523449569940567 0.028938835486769676 0.33645400404930115 154 167 165
0.021523449569940567 0.028938835486769676 0.33645400404930115 154 167 165
0.02171620912849903 0.029132669791579247 0.3373430371284485 142 156 154
0.1840849667787552 0.047452252358198166 1.4513957500457764 105 34 0
0.013617657124996185 -0.027324184775352478 0.14675737917423248 253 252 254
0.024556398391723633 0.043196577578783035 0.3697173297405243 135 151 150
-0.5143773555755615 1.235856533050537 -6.583722114562988 129 14 4
-0.29962071776390076 1.2337075471878052 -5.901901721954346 86 2 31
0.03548060357570648 0.047566018998622894 0.4383781850337982 127 148 146
0.02718222886323929 0.042169224470853806 0.372763991355896 139 163 163
-8.712747573852539 27.10527229309082 -153.23947143554688 188 97 52
0.03458722308278084 0.050566982477903366 0.44444555044174194 0 2 1
0.04135563224554062 0.04870149493217468 0.44991618394851685 131 153 151
0.016212690621614456 0.004846584517508745 0.1300102323293686 0 0 0
0.027979478240013123 0.03102993033826351 0.31118538975715637 145 143 143
0.0349794439971447 0.042604681104421616 0.39701759815216064 125 130 129
0.0349794439971447 0.042604681104421616 0.39701759815216064 125 130 129
0.03949354588985443 0.0407806932926178 0.4467257857322693 134 148 146
0.03864751383662224 0.051185768097639084 0.4269796907901764 130 146 145
-2.023284912109375 3.79255747795105 -16.124719619750977 82 5 32
0.041191622614860535 0.05053192004561424 0.4300788342952728 125 139 138
-0.9050472974777222 3.8941311836242676 -17.364015579223633 173 160 158
0.03618069365620613 0.03509111702442169 0.3475135266780853 135 148 146
0.03526484593749046 0.03906433656811714 0.3370428681373596 4 16 16
-1.1112338304519653 2.7747275829315186 -10.88834285736084 164 173 177
0.014545937068760395 0.004885479342192411 0.11172904819250107 111 125 124
0.033970270305871964 0.03169328719377518 0.31701385974884033 0 0 0
0.09598902612924576 0.06721716374158859 -0.11066891998052597 191 174 177
0.059138018637895584 0.061951134353876114 0.5225165486335754 121 149 150
0.059138018637895584 0.061951134353876114 0.5225165486335754 121 149 150
0.14720846712589264 0.12699581682682037 1.185782790184021 2 0 0
0.23371444642543793 0.26581406593322754 2.1558339595794678 144 150 149
0.02484593540430069 0.012572051025927067 0.17826850712299347 3 0 2
0.024986619129776955 0.01267855241894722 0.17914029955863953 6 1 3
-1.1575736999511719 3.2865469455718994 -13.24651050567627 100 107 110
0.030937718227505684 0.026984022930264473 0.2766033709049225 121 137 136
0.08252245932817459 0.05981677025556564 -0.1211761012673378 162 154 155
0.7857251167297363 -0.978715181350708 6.149918556213379 255 249 219
-0.247391015291214 0.49691563844680786 -2.4095776081085205 157 69 99
0.06163070723414421 0.060769181698560715 0.5052378177642822 98 103 104
0.06828060746192932 0.058499932289123535 0.5109387636184692 115 123 123
0.09286386519670486 0.08065452426671982 0.641713559627533 132 147 150
-2.057128667831421 1.6628283262252808 -13.15203857421875 114 111 13
0.09359025210142136 0.08111884444952011 0.6448999643325806 127 142 145
0.05564004182815552 0.04499216750264168 0.41510045528411865 0 0 0
0.04242629557847977 0.03661806136369705 0.3321334719657898 2 2 2
0.0770493745803833 0.06356102228164673 0.5595946311950684 108 113 112
0.09100840985774994 0.05892116203904152 0.5773710608482361 129 137 136
-1.5425362586975098 3.5961272716522217 -15.251214027404785 5 135 205
25.04711151123047 -12.512166023254395 142.08462524414062 190 121 81
0.0836155042052269 0.0586327388882637 0.5843073129653931 103 121 122
0.10150637477636337 0.08670372515916824 0.6815112233161926 118 138 143
-1.5655500888824463 1.2297407388687134 -9.886336326599121 112 111 30
-0.3630668520927429 -0.04954848065972328 -3.0347914695739746 99 25 1
-1.501609444618225 1.5201187133789062 -10.002991676330566 134 120 18
0.32120010256767273 -0.21303126215934753 3.129452705383301 116 46 0
0.11611288040876389 0.08761902153491974 0.7264148592948914 105 118 116
-1.6422611474990845 2.3499505519866943 -11.60399055480957 166 93 119
-15.177542686462402 28.402856826782227 -148.8050537109375 89 11 35
0.08475545793771744 0.06189071387052536 0.5450589060783386 104 116 116
0.08475545793771744 0.06189071387052536 0.5450589060783386 104 116 116
0.12617237865924835 0.10068721324205399 0.7780343294143677 2 1 0
0.12617237865924835 0.10068721324205399 0.7780343294143677 2 1 0
0.08631106466054916 0.06307867914438248 0.5524726510047913 105 116 114
0.13257507979869843 0.1173100396990776 0.8301652669906616 118 127 130
-1.588618516921997 1.610214352607727 -11.01123046875 119 114 12
0.09170929342508316 0.0679989755153656 0.5850266814231873 0 0 0
0.061012160032987595 0.04549161717295647 0.4090137481689453 2 2 2
-1.2672537565231323 0.9373550415039062 -7.886308193206787 112 116 11
0.10384334623813629 0.07603179663419724 0.642672598361969 107 109 109
0.11424567550420761 0.08398675918579102 0.7081351280212402 102 108 107
-1.4585450887680054 1.64853835105896 -10.003707885742188 145 45 3
-177.68833923339844 370.8719177246094 -1679.2452392578125 4 132 203
0.20622912049293518 0.017945853993296623 1.4801644086837769 107 85 80
-1.507829189300537 1.680704951286316 -10.316414833068848 148 62 8
-0.3732725977897644 -0.008602457121014595 -2.084843158721924 138 160 165
-0.3732725977897644 -0.008602457121014595 -2.084843158721924 138 160 165
0.13933676481246948 0.09167639166116714 0.758769690990448 6 6 6
-1.095238208770752 0.7709537148475647 -6.741513729095459 121 117 29
-1.3189915418624878 1.9293588399887085 -9.238360404968262 86 2 31
-0.2926695942878723 -0.022862549871206284 -1.6199780702590942 148 163 159
0.18872466683387756 0.1353580802679062 1.0228546857833862 114 125 123
1.1069682836532593 -1.7025405168533325 9.819743156433105 160 85 113
-0.04441162943840027 0.0066290549002587795 0.026334265246987343 77 20 28
0.0565977543592453 0.011030847206711769 0.39544904232025146 231 252 253
0.4942406117916107 -0.6524909734725952 4.403987407684326 173 163 163
5.304329872131348 -8.423518180847168 43.04913330078125 174 151 156
-0.19694657623767853 -0.02208148129284382 -1.1013768911361694 77 14 0
-0.1974610537290573 -0.022286338731646538 -1.1038881540298462 94 19 0
0.7097073197364807 -1.0163825750350952 5.9915266036987305 94 21 47
-1.080925464630127 0.70371013879776 -6.591434955596924 122 106 0
-0.9183737635612488 0.6273950934410095 -5.604966163635254 120 111 13
-0.7768579125404358 0.5612812638282776 -4.753320217132568 125 115 21
0.2669564485549927 0.15197928249835968 1.3080793619155884 135 144 148
0.14803266525268555 0.031089341267943382 0.5978479385375977 51 22 8
0.5787143111228943 -0.7008998990058899 4.613268852233887 156 82 110
0.12344179302453995 0.06837502121925354 0.6226553320884705 130 143 145
0.6140055060386658 -0.9017046689987183 4.946448802947998 131 99 93
-1.1377098560333252 0.6738041639328003 -6.864371299743652 129 101 14
-1.1377098560333252 0.6738041639328003 -6.864371299743652 129 101 14
-0.010294129140675068 -0.0044886148534715176 -0.047168731689453125 121 121 121
0.3649239242076874 0.4120124280452728 1.8481028079986572 212 217 218
0.055686671286821365 0.03410246595740318 0.16626988351345062 140 148 148
0.14225545525550842 0.0388200506567955 0.5146061778068542 8 17 27
0.03885054960846901 0.007414631079882383 0.1630394458770752 77 54 38
0.27950870990753174 -0.02298625372350216 1.3542133569717407 134 121 43
0.19225873053073883 0.027378486469388008 0.8250132203102112 119 40 1
0.13440348207950592 0.03479459881782532 0.38079598546028137 93 56 0
0.16210904717445374 0.03947583585977554 0.6151195168495178 103 97 30
0.13745367527008057 0.024254482239484787 0.3219388425350189 183 153 134
0.1699531525373459 0.06324634701013565 0.6359782814979553 98 102 107
0.14510011672973633 0.01565680466592312 0.34882983565330505 188 131 99
1.4795457124710083 -1.1901451349258423 6.873956203460693 119 52 21
0.2620982229709625 -0.05252847075462341 1.1777201890945435 148 136 126
0.23032887279987335 0.03896617144346237 0.8873641490936279 202 206 207
